       0      500 S      499         21.07175          3.79562          3.40254        580.67749       67    7
6371000. -0.6637588E-01  0.1002013E+02  0.1014185E-03  0.6647729E-01  0.0000000E+00  0.0000000E+00
6370000. -0.6778288E-01  0.7924335E+01  0.9128856E-04  0.6259671E-01  0.0000000E+00  0.0000000E+00
6369000. -0.6886873E-01  0.5928398E+01  0.8176871E-04  0.5870219E-01  0.0000000E+00  0.0000000E+00
6368000. -0.6964927E-01  0.4034410E+01  0.7286180E-04  0.5478535E-01  0.0000000E+00  0.0000000E+00
6368000. -0.6964927E-01  0.4034410E+01  0.7286180E-04  0.5478535E-01  0.0000000E+00  0.0000000E+00
6367000. -0.7014067E-01  0.2244607E+01  0.6457194E-04  0.5083829E-01  0.0000000E+00  0.0000000E+00
6366000. -0.7035948E-01  0.5613561E+00  0.5690449E-04  0.4685352E-01  0.0000000E+00  0.0000000E+00
6365000. -0.7032260E-01 -0.1012862E+01  0.4986591E-04  0.4282390E-01  0.0000000E+00  0.0000000E+00
6364000. -0.7004736E-01 -0.2475460E+01  0.4346380E-04  0.3874266E-01  0.0000000E+00  0.0000000E+00
6363000. -0.6955148E-01 -0.3823756E+01  0.3770677E-04  0.3460327E-01  0.0000000E+00  0.0000000E+00
6362000. -0.6885312E-01 -0.5054984E+01  0.3260443E-04  0.3039949E-01  0.0000000E+00  0.0000000E+00
6361000. -0.6797088E-01 -0.6166296E+01  0.2816737E-04  0.2612523E-01  0.0000000E+00  0.0000000E+00
6360000. -0.6692380E-01 -0.7154774E+01  0.2440713E-04  0.2177459E-01  0.0000000E+00  0.0000000E+00
6359000. -0.6573141E-01 -0.8017435E+01  0.2133614E-04  0.1734176E-01  0.0000000E+00  0.0000000E+00
6358000. -0.6441370E-01 -0.8751231E+01  0.1896776E-04  0.1282100E-01  0.0000000E+00  0.0000000E+00
6357000. -0.6299111E-01 -0.9353059E+01  0.1731624E-04  0.8206570E-02  0.0000000E+00  0.0000000E+00
6356000. -0.6148463E-01 -0.9819755E+01  0.1639674E-04  0.3492706E-02  0.0000000E+00  0.0000000E+00
6356000. -0.6148463E-01 -0.6035127E+01  0.1639674E-04  0.2654499E-01  0.0000000E+00  0.0000000E+00
6355000. -0.6048770E-01 -0.6653576E+01  0.1248689E-04  0.2329491E-01  0.0000000E+00  0.0000000E+00
6354000. -0.5940030E-01 -0.7188320E+01  0.9077842E-05  0.2016138E-01  0.0000000E+00  0.0000000E+00
6353000. -0.5823535E-01 -0.7642272E+01  0.6152417E-05  0.1713030E-01  0.0000000E+00  0.0000000E+00
6352000. -0.5700532E-01 -0.8017975E+01  0.3695614E-05  0.1418794E-01  0.0000000E+00  0.0000000E+00
6351000. -0.5572231E-01 -0.8317603E+01  0.1694559E-05  0.1132097E-01  0.0000000E+00  0.0000000E+00
6350000. -0.5439812E-01 -0.8542978E+01  0.1384473E-06  0.8516314E-02  0.0000000E+00  0.0000000E+00
6349000. -0.5304428E-01 -0.8695572E+01 -0.9814922E-06  0.5761146E-02  0.0000000E+00  0.0000000E+00
6348000. -0.5167213E-01 -0.8776509E+01 -0.1672033E-05  0.3042822E-02  0.0000000E+00  0.0000000E+00
6347000. -0.5029285E-01 -0.8786577E+01 -0.1937975E-05  0.3488246E-03  0.0000000E+00  0.0000000E+00
6346600. -0.4974162E-01 -0.8770873E+01 -0.1926166E-05 -0.7247515E-03  0.0000000E+00  0.0000000E+00
6346600. -0.4974162E-01 -0.5477512E+01 -0.1926166E-05  0.1573117E-01  0.0000000E+00  0.0000000E+00
6318800. -0.2345887E-01 -0.4895151E+01 -0.1594511E-04 -0.1870196E-02  0.0000000E+00  0.0000000E+00
6291000. -0.8863233E-02 -0.2075328E+01 -0.7599548E-05 -0.1387518E-02  0.0000000E+00  0.0000000E+00
6291000. -0.8863233E-02 -0.2101884E+01 -0.7599548E-05 -0.1610614E-02  0.0000000E+00  0.0000000E+00
6263000. -0.3016481E-02 -0.7618881E+00 -0.2814241E-05 -0.6674731E-03  0.0000000E+00  0.0000000E+00
6235000. -0.9657472E-03 -0.2565137E+00 -0.9578199E-06 -0.2418900E-03  0.0000000E+00  0.0000000E+00
6207000. -0.2918332E-03 -0.8155224E-01 -0.3070082E-06 -0.8129899E-04  0.0000000E+00  0.0000000E+00
6179000. -0.8168147E-04 -0.2482858E-01 -0.9385518E-07 -0.2577005E-04  0.0000000E+00  0.0000000E+00
6151000. -0.1879667E-04 -0.6852723E-02 -0.2336658E-07 -0.1101611E-04  0.0000000E+00  0.0000000E+00
6151000. -0.1879667E-04 -0.6021467E-02 -0.2336658E-07 -0.7500029E-05  0.0000000E+00  0.0000000E+00
6128500. -0.6035614E-05 -0.1950526E-02 -0.7509107E-08 -0.2419761E-05  0.0000000E+00  0.0000000E+00
6106000. -0.1915905E-05 -0.6260762E-03 -0.2395562E-08 -0.7785144E-06  0.0000000E+00  0.0000000E+00
6083500. -0.5999552E-06 -0.1984832E-03 -0.7556391E-09 -0.2482798E-06  0.0000000E+00  0.0000000E+00
6061000. -0.1851148E-06 -0.6203784E-04 -0.2351390E-09 -0.7821178E-07  0.0000000E+00  0.0000000E+00
6038500. -0.5623433E-07 -0.1910147E-04 -0.7210383E-10 -0.2428629E-07  0.0000000E+00  0.0000000E+00
6016000. -0.1678660E-07 -0.5798461E-05 -0.2179827E-10 -0.7421187E-08  0.0000000E+00  0.0000000E+00
5993500. -0.4856320E-08 -0.1748827E-05 -0.6522975E-11 -0.2240824E-08  0.0000000E+00  0.0000000E+00
5971000. -0.1275319E-08 -0.5009338E-06 -0.1711699E-11 -0.8596063E-09  0.0000000E+00  0.0000000E+00
5971000. -0.1275319E-08 -0.4675107E-06 -0.1711699E-11 -0.6151977E-09  0.0000000E+00  0.0000000E+00
5937667. -0.1809336E-09 -0.6868383E-07 -0.2509931E-12 -0.9387258E-10  0.0000000E+00  0.0000000E+00
5904333. -0.2407920E-10 -0.9413734E-08 -0.3428238E-13 -0.1326034E-10  0.0000000E+00  0.0000000E+00
5871000. -0.3063775E-11 -0.1208155E-08 -0.4411456E-14 -0.1723334E-11  0.0000000E+00  0.0000000E+00
5837667.  0.0000000E+00  0.0000000E+00  0.0000000E+00  0.0000000E+00  0.0000000E+00  0.0000000E+00
5804333.  0.0000000E+00  0.0000000E+00  0.0000000E+00  0.0000000E+00  0.0000000E+00  0.0000000E+00
5771000.  0.0000000E+00  0.0000000E+00  0.0000000E+00  0.0000000E+00  0.0000000E+00  0.0000000E+00
5771000.  0.0000000E+00  0.0000000E+00  0.0000000E+00  0.0000000E+00  0.0000000E+00  0.0000000E+00
5701000.  0.0000000E+00  0.0000000E+00  0.0000000E+00  0.0000000E+00  0.0000000E+00  0.0000000E+00
5701000.  0.0000000E+00  0.0000000E+00  0.0000000E+00  0.0000000E+00  0.0000000E+00  0.0000000E+00
5667333.  0.0000000E+00  0.0000000E+00  0.0000000E+00  0.0000000E+00  0.0000000E+00  0.0000000E+00
5633667.  0.0000000E+00  0.0000000E+00  0.0000000E+00  0.0000000E+00  0.0000000E+00  0.0000000E+00
5600000.  0.0000000E+00  0.0000000E+00  0.0000000E+00  0.0000000E+00  0.0000000E+00  0.0000000E+00
5600000.  0.0000000E+00  0.0000000E+00  0.0000000E+00  0.0000000E+00  0.0000000E+00  0.0000000E+00
5563518.  0.0000000E+00  0.0000000E+00  0.0000000E+00  0.0000000E+00  0.0000000E+00  0.0000000E+00
5527037.  0.0000000E+00  0.0000000E+00  0.0000000E+00  0.0000000E+00  0.0000000E+00  0.0000000E+00
5490556.  0.0000000E+00  0.0000000E+00  0.0000000E+00  0.0000000E+00  0.0000000E+00  0.0000000E+00
5454074.  0.0000000E+00  0.0000000E+00  0.0000000E+00  0.0000000E+00  0.0000000E+00  0.0000000E+00
5417593.  0.0000000E+00  0.0000000E+00  0.0000000E+00  0.0000000E+00  0.0000000E+00  0.0000000E+00
5381111.  0.0000000E+00  0.0000000E+00  0.0000000E+00  0.0000000E+00  0.0000000E+00  0.0000000E+00
5344630.  0.0000000E+00  0.0000000E+00  0.0000000E+00  0.0000000E+00  0.0000000E+00  0.0000000E+00
